ply
format ascii 1.0
comment author: Martin Cerveny
comment object: another cube
element vertex 1610
property float x
property float y
property float z
property uchar red
property uchar green
property uchar blue
end_header
100.986 205.076 84.0162 0 0 0
101.531 205.46 84.2251 0 0 0
101.372 205.539 136.671 0 0 0
101.526 206.479 84.4247 0 0 0
101.407 206.455 136.538 0 0 0
101.496 207.447 84.666 0 0 0
101.464 207.353 136.376 0 0 0
101.448 208.369 84.9288 0 0 0
101.383 208.807 135.859 0 0 0
101.554 208.169 136.178 0 0 0
100.91 208.008 135.972 0 0 0
100.74 208.978 85.0327 0 0 0
101.235 208.947 85.0696 0 0 0
101.517 209.454 85.3032 0 0 0
101.85 208.819 85.1318 0 0 0
101.417 209.595 135.558 0 0 0
101.486 210.452 85.6479 0 0 0
101.054 210.867 134.823 0 0 0
101.528 210.51 135.236 0 0 0
100.842 210.151 135.05 0 0 0
101.453 211.341 85.9342 0 0 0
100.889 212.024 134.177 0 0 0
101.192 211.602 134.567 0 0 0
100.754 211.915 86.0906 0 0 0
101.241 211.917 86.0899 0 0 0
101.515 212.435 86.3117 0 0 0
101.839 211.8 86.1136 0 0 0
101.111 212.652 134.052 0 0 0
101.501 213.482 86.6597 0 0 0
101.425 213.531 133.874 0 0 0
101.497 214.465 86.9431 0 0 0
101.502 214.484 133.54 0 0 0
101.983 214.868 87.0822 0 0 0
101.86 215.498 87.2529 0 0 0
101.312 215.289 87.1348 0 0 0
100.692 215.285 87.1758 0 0 0
100.931 215.296 132.91 0 0 0
101.624 215.36 133.261 0 0 0
100.794 215.852 87.3297 0 0 0
101.212 215.843 87.2812 0 0 0
101.538 216.287 87.5313 0 0 0
101.018 216.989 132.061 0 0 0
101.467 216.753 132.506 0 0 0
100.836 216.18 132.402 0 0 0
101.675 216.13 132.958 0 0 0
101.13 215.884 132.782 0 0 0
100.805 217.258 88.0175 0 0 0
101.618 217.315 87.9338 0 0 0
101.185 217.633 131.855 0 0 0
100.913 217.824 88.2233 0 0 0
101.361 217.851 88.1577 0 0 0
101.59 218.314 88.4118 0 0 0
101.896 217.853 88.1476 0 0 0
100.804 218.425 131.217 0 0 0
101.548 218.488 131.689 0 0 0
100.911 218.963 88.8536 0 0 0
101.615 219.072 88.7834 0 0 0
101.509 219.756 89.1155 0 0 0
101.235 219.796 130.833 0 0 0
101.624 219.413 131.279 0 0 0
100.996 219.101 131.03 0 0 0
101.517 220.556 89.4121 0 0 0
101.519 220.513 130.624 0 0 0
101.549 221.386 89.6721 0 0 0
100.728 221.493 129.468 0 0 0
101.297 221.801 129.721 0 0 0
101.635 221.416 130.189 0 0 0
101.003 221.1 129.94 0 0 0
101.541 222.179 89.9314 0 0 0
101.445 222.858 90.1943 0 0 0
101.183 222.841 128.972 0 0 0
101.56 222.483 129.478 0 0 0
100.932 222.159 129.22 0 0 0
101.517 223.594 90.4396 0 0 0
101.473 223.544 128.736 0 0 0
101.5 224.495 90.7319 0 0 0
101.096 224.961 91.0099 0 0 0
101.224 224.818 127.762 0 0 0
101.59 224.43 128.26 0 0 0
100.902 224.127 127.976 0 0 0
101.313 225.609 91.0837 0 0 0
100.875 225.371 127.1 0 0 0
101.585 225.48 127.571 0 0 0
101.279 226.451 91.1926 0 0 0
101.074 226.965 125.949 0 0 0
101.347 226.675 126.46 0 0 0
100.784 226.19 126.366 0 0 0
101.722 226.295 127.078 0 0 0
101.108 225.968 126.87 0 0 0
100.625 227.563 91.4362 0 0 0
101.369 227.216 91.1168 0 0 0
100.796 227.48 125.258 0 0 0
101.493 227.617 125.774 0 0 0
101.066 228.007 91.1073 0 0 0
101.607 227.815 90.8674 0 0 0
100.971 228.68 91.0238 0 0 0
101.651 228.614 90.648 0 0 0
101.268 228.777 124.665 0 0 0
101.622 228.447 125.226 0 0 0
101.005 228.113 124.953 0 0 0
100.902 229.574 90.863 0 0 0
101.681 229.583 90.375 0 0 0
100.723 229.492 123.491 0 0 0
101.276 229.82 123.794 0 0 0
101.583 229.467 124.389 0 0 0
100.968 229.126 124.085 0 0 0
100.77 230.506 90.7435 0 0 0
101.42 230.545 90.2885 0 0 0
101.198 230.835 122.822 0 0 0
101.553 230.495 123.477 0 0 0
100.936 230.147 123.152 0 0 0
100.632 231.422 90.6351 0 0 0
101.264 231.446 90.1643 0 0 0
101.101 231.873 121.826 0 0 0
101.503 231.563 122.509 0 0 0
100.851 231.171 122.16 0 0 0
101.115 232.301 90.0156 0 0 0
100.997 232.88 120.857 0 0 0
101.298 232.561 121.473 0 0 0
100.747 232.194 121.163 0 0 0
101.004 232.958 89.8622 0 0 0
100.971 233.896 119.992 0 0 0
101.246 233.568 120.582 0 0 0
100.699 233.221 120.232 0 0 0
101.44 233.34 89.3022 0 0 0
101.334 234.141 88.9155 0 0 0
100.708 234.438 119.296 0 0 0
101.25 234.548 119.807 0 0 0
100.944 234.945 88.6734 0 0 0
101.458 234.637 88.2768 0 0 0
100.744 235.586 88.3925 0 0 0
101.173 235.246 88.0426 0 0 0
101.213 235.791 118.789 0 0 0
101.567 235.426 119.464 0 0 0
100.946 235.094 119.055 0 0 0
100.917 235.857 87.7616 0 0 0
101.312 235.512 87.3945 0 0 0
100.386 236.37 88.2952 0 0 0
100.701 236.481 87.4567 0 0 0
101.087 236.075 87.1111 0 0 0
100.661 236.509 117.525 0 0 0
101.167 236.841 117.84 0 0 0
101.511 236.534 118.5 0 0 0
100.913 236.151 118.142 0 0 0
101.054 236.962 85.9018 0 0 0
101.493 236.471 85.5384 0 0 0
101.253 236.234 86.4571 0 0 0
100.855 236.825 86.5972 0 0 0
100.843 237.606 85.5823 0 0 0
101.257 237.141 85.1898 0 0 0
101.091 237.826 116.886 0 0 0
101.337 237.475 117.495 0 0 0
100.829 237.15 117.182 0 0 0
101.011 237.811 84.8383 0 0 0
101.435 237.329 84.4508 0 0 0
100.475 238.473 85.4119 0 0 0
100.758 238.47 84.4833 0 0 0
101.158 237.985 84.1259 0 0 0
101.129 238.89 116.042 0 0 0
101.439 238.545 116.65 0 0 0
100.821 238.186 116.293 0 0 0
101.049 239.013 77.8495 0 0 0
101.409 238.571 77.5199 0 0 0
101.355 238.393 78.4963 0 0 0
101 238.954 78.4989 0 0 0
100.684 239.521 78.5057 0 0 0
100.805 239.566 77.5417 0 0 0
101.145 239.122 77.1685 0 0 0
101.252 238.481 79.4577 0 0 0
100.975 238.931 79.1439 0 0 0
100.715 239.377 79.4611 0 0 0
100.987 238.942 79.7182 0 0 0
100.977 238.919 80.7182 0 0 0
101.265 238.471 80.4515 0 0 0
101.345 238.374 81.4535 0 0 0
100.974 238.913 81.2251 0 0 0
100.704 239.351 80.4568 0 0 0
100.991 238.937 80.2164 0 0 0
100.989 238.901 81.7333 0 0 0
100.925 238.769 82.8605 0 0 0
101.346 238.247 82.4882 0 0 0
101.26 238.094 83.434 0 0 0
100.828 238.712 83.5728 0 0 0
100.988 238.841 82.25 0 0 0
100.31 239.324 84.4601 0 0 0
101.41 239.582 115.789 0 0 0
101.003 240.02 75.9094 0 0 0
101.387 239.585 75.5404 0 0 0
101.264 239.268 76.4564 0 0 0
100.865 239.871 76.6207 0 0 0
100.805 240.663 75.5978 0 0 0
101.164 240.231 75.1913 0 0 0
101.228 240.79 114.747 0 0 0
101.519 240.434 115.283 0 0 0
100.917 240.118 114.955 0 0 0
100.968 240.898 74.8669 0 0 0
101.329 240.487 74.4523 0 0 0
100.489 241.53 75.4399 0 0 0
100.802 241.582 74.5699 0 0 0
101.133 241.176 74.1549 0 0 0
100.599 241.459 113.363 0 0 0
100.986 241.323 114.046 0 0 0
101.586 241.438 114.584 0 0 0
100.947 241.881 73.8846 0 0 0
101.284 241.484 73.4544 0 0 0
100.493 242.454 74.5214 0 0 0
100.785 242.611 73.6615 0 0 0
101.111 242.212 73.2071 0 0 0
100.75 242.463 112.481 0 0 0
101.286 242.883 112.81 0 0 0
101.582 242.658 113.437 0 0 0
101.019 242.123 113.293 0 0 0
101.7 242.135 114.101 0 0 0
101.207 241.879 113.84 0 0 0
100.952 242.929 73.026 0 0 0
101.289 242.574 72.5456 0 0 0
100.819 243.647 72.9349 0 0 0
101.177 243.539 72.2967 0 0 0
100.769 243.437 111.44 0 0 0
101.296 243.828 111.809 0 0 0
101.566 243.521 112.49 0 0 0
101.015 243.144 112.142 0 0 0
100.726 244.547 72.7654 0 0 0
101.085 244.43 72.1634 0 0 0
100.773 244.373 110.409 0 0 0
101.261 244.773 110.761 0 0 0
101.593 244.515 111.484 0 0 0
101.028 244.118 111.118 0 0 0
100.666 245.55 72.5822 0 0 0
101.011 245.16 72.0936 0 0 0
101.042 245.869 108.858 0 0 0
101.256 245.724 109.527 0 0 0
100.778 245.14 109.411 0 0 0
101.474 245.392 110.359 0 0 0
100.989 244.988 110.072 0 0 0
100.926 245.895 72.0305 0 0 0
101.275 245.517 71.5741 0 0 0
100.86 246.644 72.0089 0 0 0
101.28 246.543 71.4134 0 0 0
100.287 246.622 103.528 0 0 0
100.566 246.301 106.455 0 0 0
100.811 246.311 107.399 0 0 0
101.229 246.748 107.802 0 0 0
101.342 246.472 108.538 0 0 0
100.89 246.07 108.15 0 0 0
100.846 247.538 71.9372 0 0 0
101.28 247.514 71.3475 0 0 0
100.487 247.498 102.528 0 0 0
100.703 247.481 103.531 0 0 0
101.047 247.952 103.906 0 0 0
101.139 247.86 104.612 0 0 0
100.739 247.21 104.525 0 0 0
101.267 247.77 105.502 0 0 0
100.826 247.08 105.475 0 0 0
101.394 247.618 106.434 0 0 0
100.958 246.999 106.368 0 0 0
101.579 247.41 107.444 0 0 0
101.096 246.931 107.082 0 0 0
100.859 248.461 71.9412 0 0 0
101.298 248.479 71.3548 0 0 0
100.602 248.327 101.477 0 0 0
100.87 248.349 102.428 0 0 0
101.231 248.792 102.841 0 0 0
101.288 248.521 103.595 0 0 0
100.948 248.122 103.182 0 0 0
100.906 249.367 72.0229 0 0 0
101.337 249.445 71.437 0 0 0
100.479 249.484 98.4931 0 0 0
100.688 249.459 99.5136 0 0 0
101.029 249.981 99.8904 0 0 0
101.168 249.88 100.593 0 0 0
100.788 249.192 100.503 0 0 0
101.36 249.742 101.481 0 0 0
100.954 249.069 101.395 0 0 0
101.557 249.493 102.511 0 0 0
101.111 248.981 102.113 0 0 0
101.007 250.116 72.0614 0 0 0
101.398 250.459 71.6064 0 0 0
101.133 250.844 72.1356 0 0 0
100.779 250.495 72.6387 0 0 0
100.425 250.603 73.468 0 0 0
100.418 250.573 95.5108 0 0 0
100.535 250.548 96.5099 0 0 0
100.639 250.411 97.465 0 0 0
100.832 250.395 98.4189 0 0 0
101.134 250.855 98.8373 0 0 0
101.236 250.618 99.5761 0 0 0
100.912 250.158 99.1696 0 0 0
100.568 251.492 73.5967 0 0 0
100.892 251.472 72.8438 0 0 0
101.264 251.564 72.212 0 0 0
100.451 251.612 93.5162 0 0 0
100.647 251.614 94.4543 0 0 0
100.898 252.101 94.6879 0 0 0
100.941 252.097 95.1232 0 0 0
100.786 251.635 95.4656 0 0 0
100.894 251.545 96.5417 0 0 0
101.148 251.986 96.9936 0 0 0
101.258 251.858 97.6384 0 0 0
100.944 251.218 97.4417 0 0 0
101.36 251.557 98.5223 0 0 0
101.029 251.059 98.128 0 0 0
100.743 252.361 73.6623 0 0 0
101.017 252.313 72.9824 0 0 0
101.381 252.426 72.3967 0 0 0
100.49 252.465 74.4505 0 0 0
100.517 252.425 92.5713 0 0 0
100.749 252.436 93.4288 0 0 0
101.017 252.878 93.7997 0 0 0
101.049 252.658 94.461 0 0 0
100.825 252.225 94.1216 0 0 0
101.102 252.341 96.3056 0 0 0
101.03 252.37 95.6885 0 0 0
101.105 252.61 95.1916 0 0 0
101.334 252.569 96.8272 0 0 0
101.132 252.947 73.0915 0 0 0
101.506 253.332 72.6991 0 0 0
101.288 253.75 73.4558 0 0 0
100.963 253.138 73.6652 0 0 0
101.093 253.926 74.0577 0 0 0
100.76 253.448 74.4988 0 0 0
100.96 253.897 91.8767 0 0 0
101.106 253.801 92.5817 0 0 0
100.779 253.158 92.4397 0 0 0
101.221 253.562 93.4966 0 0 0
100.918 253.054 93.1254 0 0 0
101.188 252.871 95.7804 0 0 0
101.406 253.327 95.473 0 0 0
101.526 253.254 96.4085 0 0 0
101.232 252.847 96.1677 0 0 0
100.645 254.32 75.5947 0 0 0
100.924 254.332 74.8295 0 0 0
101.265 254.557 74.2318 0 0 0
100.408 254.438 76.4214 0 0 0
100.607 254.681 88.5106 0 0 0
100.892 255.082 88.8579 0 0 0
100.951 255.017 89.3085 0 0 0
100.727 254.523 89.5017 0 0 0
100.817 254.351 90.4443 0 0 0
101.108 254.755 90.8484 0 0 0
101.187 254.539 91.5765 0 0 0
100.855 254.088 91.1671 0 0 0
101.072 254.959 75.0162 0 0 0
101.438 255.37 74.6226 0 0 0
101.252 255.75 75.4451 0 0 0
100.903 255.125 75.6269 0 0 0
101.042 255.938 76.0824 0 0 0
100.669 255.436 76.46 0 0 0
100.401 255.63 85.5585 0 0 0
100.531 255.503 86.476 0 0 0
100.657 255.389 87.3646 0 0 0
100.843 255.406 88.1611 0 0 0
101.081 255.58 88.7573 0 0 0
100.98 254.979 89.773 0 0 0
101.201 255.464 89.5737 0 0 0
101.332 255.336 90.5293 0 0 0
101.031 254.908 90.248 0 0 0
100.748 256.206 76.7413 0 0 0
101.175 256.641 76.3043 0 0 0
100.863 256.938 76.9086 0 0 0
100.467 256.548 84.5833 0 0 0
100.746 256.503 85.5472 0 0 0
101.071 256.96 85.9134 0 0 0
101.183 256.847 86.5963 0 0 0
100.848 256.233 86.4879 0 0 0
101.308 256.693 87.4615 0 0 0
100.955 256.075 87.3318 0 0 0
101.377 256.362 88.4267 0 0 0
101.046 255.96 87.986 0 0 0
100.981 257.658 76.9295 0 0 0
100.392 257.563 83.7315 0 0 0
100.8 257.458 84.5384 0 0 0
101.193 257.857 84.9336 0 0 0
101.286 257.552 85.6306 0 0 0
100.942 257.164 85.2234 0 0 0
101.061 258.554 77.0045 0 0 0
100.682 258.549 83.71 0 0 0
101.22 258.916 84.0706 0 0 0
101.485 258.597 84.7027 0 0 0
100.993 258.189 84.2882 0 0 0
101.17 259.502 77.0529 0 0 0
100.743 259.551 83.4566 0 0 0
101.459 259.657 83.9061 0 0 0
101.363 260.517 77.0725 0 0 0
100.705 260.509 83.2526 0 0 0
101.472 260.572 83.5518 0 0 0
101.285 261.525 77.1733 0 0 0
101.072 261.802 83.0265 0 0 0
101.402 261.478 83.2216 0 0 0
101.286 262.483 77.1902 0 0 0
101.418 262.446 82.9241 0 0 0
101.369 263.477 77.1426 0 0 0
101.461 263.429 82.6603 0 0 0
101.181 264.407 77.1382 0 0 0
101.477 264.34 82.3882 0 0 0
101.102 265.101 77.1197 0 0 0
101.588 265.812 81.8126 0 0 0
101.49 265.153 82.1057 0 0 0
101.042 265.749 77.0946 0 0 0
101.668 265.414 77.0221 0 0 0
101.048 266.327 77.1298 0 0 0
101.74 266.242 77.0428 0 0 0
101.515 266.459 81.4871 0 0 0
101.101 266.852 77.2147 0 0 0
101.722 266.898 77.1868 0 0 0
101.567 267.427 77.4991 0 0 0
101.519 267.674 80.6499 0 0 0
101.492 267.112 81.0895 0 0 0
101.473 267.975 77.9458 0 0 0
101.38 268.402 78.4601 0 0 0
101.485 268.488 79.6862 0 0 0
101.489 268.157 80.1725 0 0 0
101.25 268.673 78.8932 0 0 0
101.275 268.695 79.3261 0 0 0
101.91 71.0682 107.872 0 0 0
101.947 71.0349 108.519 0 0 0
102.152 71.7291 108.528 0 0 0
102.067 71.7027 107.598 0 0 0
101.951 71.0385 109.171 0 0 0
102.111 71.6537 109.486 0 0 0
102.02 71.9252 106.872 0 0 0
102.353 72.6337 107.549 0 0 0
102.197 72.6436 106.586 0 0 0
102.407 72.6002 108.518 0 0 0
102.396 72.5801 109.479 0 0 0
102.097 71.8683 110.398 0 0 0
102.355 72.6594 110.431 0 0 0
102.03 71.9885 111.094 0 0 0
102.198 72.6617 111.381 0 0 0
102.096 72.8858 105.859 0 0 0
102.553 73.642 106.505 0 0 0
102.274 73.6006 105.563 0 0 0
102.683 73.6501 107.506 0 0 0
102.678 73.5157 108.522 0 0 0
102.671 73.459 109.474 0 0 0
102.685 73.581 110.441 0 0 0
102.559 73.6299 111.446 0 0 0
102.088 72.8911 112.105 0 0 0
102.256 73.603 112.391 0 0 0
102.126 73.8564 104.852 0 0 0
102.602 74.4946 105.456 0 0 0
102.289 74.5553 104.551 0 0 0
102.725 74.2556 106.153 0 0 0
102.935 74.3837 108.599 0 0 0
102.92 74.3967 107.805 0 0 0
102.907 74.1927 109.445 0 0 0
102.897 74.1267 110.122 0 0 0
102.593 74.5092 112.483 0 0 0
102.741 74.2569 111.787 0 0 0
102.072 73.8655 113.084 0 0 0
102.213 74.5887 113.359 0 0 0
102.115 74.8379 103.844 0 0 0
102.626 75.465 104.465 0 0 0
102.288 75.5506 103.552 0 0 0
102.772 75.1805 105.169 0 0 0
103.075 74.9259 108.337 0 0 0
103.057 74.9174 107.885 0 0 0
102.569 75.5453 113.384 0 0 0
102.769 75.2158 112.747 0 0 0
101.969 74.8826 114.013 0 0 0
102.161 75.5973 114.123 0 0 0
102.11 75.8503 102.846 0 0 0
102.635 76.4688 103.478 0 0 0
102.285 76.5689 102.573 0 0 0
102.796 76.1713 104.179 0 0 0
102.333 76.4658 114.321 0 0 0
102.712 76.4356 113.682 0 0 0
102.099 76.8644 101.886 0 0 0
102.633 77.5103 102.516 0 0 0
102.242 77.5641 101.626 0 0 0
102.806 77.1856 103.205 0 0 0
102.515 77.4759 114.563 0 0 0
102.827 77.143 113.883 0 0 0
102.047 77.8641 101.011 0 0 0
102.52 78.4059 101.522 0 0 0
102.21 78.5294 100.838 0 0 0
102.83 78.3588 102.221 0 0 0
102.136 77.8255 115.379 0 0 0
102.342 78.6321 115.415 0 0 0
102.721 78.5442 114.739 0 0 0
101.852 78.0104 115.937 0 0 0
101.979 78.6819 116.018 0 0 0
102.795 79.1526 101.423 0 0 0
102.465 79.4538 100.549 0 0 0
103.001 78.9728 102.04 0 0 0
102.495 79.4963 115.492 0 0 0
102.87 79.4647 114.858 0 0 0
102.112 79.5284 116.114 0 0 0
102.167 79.8018 99.82 0 0 0
102.702 80.2136 100.238 0 0 0
102.432 80.578 99.541 0 0 0
102.65 80.3543 115.572 0 0 0
103.004 80.3053 114.962 0 0 0
102.262 80.4396 116.235 0 0 0
102.129 80.8992 98.8425 0 0 0
102.729 81.4833 99.2382 0 0 0
102.289 81.6016 98.523 0 0 0
102.868 81.1408 115.622 0 0 0
103.137 80.9597 115.055 0 0 0
102.484 81.4762 116.445 0 0 0
102.016 81.9041 97.9053 0 0 0
102.697 82.5377 98.462 0 0 0
102.153 82.6206 97.6339 0 0 0
102.971 82.1764 99.0802 0 0 0
102.126 81.8144 117.127 0 0 0
102.345 82.4806 117.334 0 0 0
102.749 82.3943 116.725 0 0 0
101.845 82.9263 97.037 0 0 0
102.464 83.5397 97.529 0 0 0
102.022 83.6176 96.8771 0 0 0
102.887 83.4446 98.1868 0 0 0
102.675 83.3082 117.657 0 0 0
102.988 83.0409 116.95 0 0 0
102.761 84.5006 97.4456 0 0 0
102.169 84.5401 96.6024 0 0 0
103.058 84.1493 98.0431 0 0 0
102.34 83.6482 118.479 0 0 0
102.783 84.209 118.575 0 0 0
103.025 83.9719 117.94 0 0 0
102.09 83.8802 119.106 0 0 0
102.462 84.5106 119.421 0 0 0
101.852 84.8941 96.0149 0 0 0
102.462 85.5219 96.5258 0 0 0
102.015 85.6088 95.8746 0 0 0
102.897 85.4339 97.1832 0 0 0
102.166 84.7957 120.146 0 0 0
102.539 85.3805 120.515 0 0 0
102.832 85.118 119.797 0 0 0
102.73 86.5249 96.4705 0 0 0
102.135 86.5535 95.6259 0 0 0
103.039 86.1587 97.056 0 0 0
102.25 85.6547 121.228 0 0 0
102.654 86.154 121.595 0 0 0
102.926 85.9097 120.888 0 0 0
101.816 86.9153 95.0577 0 0 0
102.371 87.5445 95.5779 0 0 0
101.956 87.6396 94.9745 0 0 0
102.83 87.5291 96.2402 0 0 0
102.559 86.6154 122.466 0 0 0
102.208 86.8029 123.141 0 0 0
102.586 87.2953 123.521 0 0 0
102.902 87.0624 122.856 0 0 0
102.522 88.4743 95.5063 0 0 0
102.087 88.5304 94.8877 0 0 0
102.955 88.4539 96.1203 0 0 0
102.444 87.8183 124.351 0 0 0
102.079 88.0461 124.942 0 0 0
102.295 88.5159 125.267 0 0 0
102.817 88.4338 124.756 0 0 0
102.672 89.3661 95.4499 0 0 0
102.238 89.4784 94.8298 0 0 0
103.09 89.3213 96.0264 0 0 0
102.695 89.1289 125.618 0 0 0
103.037 88.8837 125.071 0 0 0
102.868 90.1712 95.4273 0 0 0
102.461 90.5192 94.7926 0 0 0
103.165 89.99 95.8949 0 0 0
102.592 89.6456 126.254 0 0 0
102.675 90.1597 126.765 0 0 0
102.422 91.5465 94.4421 0 0 0
102.586 90.6512 127.368 0 0 0
102.619 91.2063 127.946 0 0 0
102.031 91.8825 93.9978 0 0 0
102.647 92.535 94.3691 0 0 0
102.101 92.6047 93.9019 0 0 0
102.492 91.7064 128.573 0 0 0
102.26 92.0259 129.036 0 0 0
101.795 91.8845 129.038 0 0 0
102.511 92.4625 129.521 0 0 0
102.848 92.0958 128.928 0 0 0
102.821 93.4714 94.2591 0 0 0
102.196 93.5062 93.776 0 0 0
102.123 92.8547 130.074 0 0 0
102.434 93.3753 130.607 0 0 0
102.73 92.9666 130.05 0 0 0
102.95 94.3514 94.1032 0 0 0
102.374 94.4447 93.6672 0 0 0
102.108 93.8659 131.144 0 0 0
102.478 94.3609 131.62 0 0 0
102.712 93.8799 131.077 0 0 0
103.071 95.0399 93.9621 0 0 0
102.653 95.4149 93.5442 0 0 0
102.256 94.923 132.108 0 0 0
102.66 96.4292 93.1442 0 0 0
102.555 95.3776 132.609 0 0 0
102.28 95.8999 133.041 0 0 0
102.174 96.7855 92.7293 0 0 0
102.88 97.3411 92.8625 0 0 0
102.281 97.516 92.4548 0 0 0
102.536 96.3326 133.51 0 0 0
102.506 96.9536 134.097 0 0 0
101.834 96.9526 134.044 0 0 0
102.492 97.5746 134.68 0 0 0
101.988 97.9607 92.0893 0 0 0
102.779 98.2777 92.3461 0 0 0
102.208 98.5551 91.9581 0 0 0
102.998 97.8838 92.6964 0 0 0
102.237 98.0161 135.074 0 0 0
101.722 98.011 135.015 0 0 0
102.486 98.4707 135.53 0 0 0
102.745 98.0085 135.089 0 0 0
102.859 98.8967 92.0943 0 0 0
102.535 99.3783 91.7597 0 0 0
102.235 98.9444 135.953 0 0 0
101.727 99.0114 135.945 0 0 0
102.48 99.3382 136.377 0 0 0
102.736 98.921 135.974 0 0 0
102.527 100.426 91.395 0 0 0
102.477 99.9305 136.953 0 0 0
102.455 101.334 91.121 0 0 0
102.47 100.498 137.569 0 0 0
102.115 101.022 137.977 0 0 0
102.234 101.912 90.9806 0 0 0
102.458 101.444 138.578 0 0 0
102.109 102.015 139.008 0 0 0
102.467 102.436 90.8606 0 0 0
102.462 103.479 90.6662 0 0 0
102.445 102.357 139.548 0 0 0
102.57 102.934 140.208 0 0 0
101.889 103.105 140.017 0 0 0
102.46 103.641 140.81 0 0 0
102.492 104.495 90.4974 0 0 0
102.07 104.403 141.162 0 0 0
102.526 105.494 90.3214 0 0 0
101.918 104.88 141.366 0 0 0
102.599 106.353 90.1622 0 0 0
102.049 105.224 141.818 0 0 0
101.938 105.744 142.106 0 0 0
102.554 107.004 90.0266 0 0 0
102.098 106.009 142.545 0 0 0
102.457 106.363 143.266 0 0 0
101.904 106.807 143.055 0 0 0
101.763 107.551 143.482 0 0 0
102.369 107.131 143.854 0 0 0
102.502 107.637 89.8662 0 0 0
102.494 108.543 89.6554 0 0 0
101.369 108.371 143.597 0 0 0
102.401 107.735 144.568 0 0 0
101.967 107.962 144.073 0 0 0
101.689 108.597 144.177 0 0 0
102.035 108.613 144.78 0 0 0
102.485 109.537 89.4284 0 0 0
101.739 109.35 144.838 0 0 0
102.07 109.194 145.841 0 0 0
102.241 108.782 145.545 0 0 0
102.539 108.807 146.266 0 0 0
102.178 109.209 146.17 0 0 0
102.044 109.765 146.33 0 0 0
101.856 109.707 145.778 0 0 0
101.896 109.443 145.36 0 0 0
102.412 109.364 146.554 0 0 0
102.46 110.581 89.1795 0 0 0
101.594 109.892 144.955 0 0 0
101.682 109.954 145.283 0 0 0
102.783 109.632 146.949 0 0 0
102.252 109.996 146.749 0 0 0
102.084 110.687 146.83 0 0 0
102.741 110.577 147.19 0 0 0
102.154 111.193 89.0381 0 0 0
102.658 111.538 147.338 0 0 0
101.84 111.822 88.8735 0 0 0
102.489 111.649 88.9008 0 0 0
102.519 112.534 88.6464 0 0 0
102.602 112.507 147.428 0 0 0
102.551 113.62 88.3024 0 0 0
102.616 113.478 147.454 0 0 0
102.589 114.432 88.0862 0 0 0
102.591 114.499 147.406 0 0 0
101.905 114.872 87.9879 0 0 0
102.58 114.584 88.0284 0 0 0
102.906 114.967 87.9641 0 0 0
102.642 115.444 87.8289 0 0 0
102.561 115.529 147.314 0 0 0
102.56 116.495 87.5294 0 0 0
102.503 116.588 147.172 0 0 0
102.531 117.511 87.2174 0 0 0
102.43 117.668 146.999 0 0 0
102.171 117.192 147.056 0 0 0
102.679 117.108 147.083 0 0 0
101.806 118.059 87.0902 0 0 0
102.289 118.023 87.0639 0 0 0
102.782 118.02 87.0633 0 0 0
102.563 118.536 86.9652 0 0 0
102.348 118.535 146.886 0 0 0
102.587 119.485 86.8505 0 0 0
102.323 119.5 146.783 0 0 0
102.576 120.391 86.8464 0 0 0
102.335 120.486 146.701 0 0 0
102.509 121.247 86.9486 0 0 0
102.333 121.942 87.1155 0 0 0
102.381 121.475 146.625 0 0 0
102.326 122.712 87.2399 0 0 0
102.452 122.475 146.532 0 0 0
102.351 123.589 87.3181 0 0 0
102.467 123.481 146.393 0 0 0
102.37 124.532 87.3577 0 0 0
101.969 124.907 146.019 0 0 0
102.484 124.511 146.237 0 0 0
101.8 124.18 146.101 0 0 0
102.378 125.51 87.3741 0 0 0
102.043 125.618 145.952 0 0 0
102.381 126.503 87.3797 0 0 0
102.122 126.501 145.877 0 0 0
102.382 127.501 87.3812 0 0 0
102.242 127.413 145.803 0 0 0
102.382 128.5 87.3815 0 0 0
102.538 128.338 145.736 0 0 0
102.382 129.5 87.3814 0 0 0
102.518 129.423 145.55 0 0 0
102.381 130.5 87.3814 0 0 0
102.521 130.421 145.372 0 0 0
102.381 131.5 87.3814 0 0 0
102.124 131.951 144.954 0 0 0
102.52 131.424 145.161 0 0 0
102.382 132.5 87.3814 0 0 0
102.415 132.62 144.84 0 0 0
102.382 133.5 87.3816 0 0 0
102.482 133.542 144.613 0 0 0
102.382 134.5 87.382 0 0 0
102.528 134.462 144.376 0 0 0
102.382 135.499 87.3827 0 0 0
102.534 135.963 143.889 0 0 0
102.553 135.323 144.125 0 0 0
102.383 136.497 87.385 0 0 0
102.522 136.611 143.634 0 0 0
102.387 137.49 87.3925 0 0 0
102.462 138.003 143.025 0 0 0
102.51 137.407 143.298 0 0 0
102.397 138.471 87.4138 0 0 0
102.429 138.625 142.795 0 0 0
102.42 139.426 87.4654 0 0 0
102.511 139.421 142.536 0 0 0
102.461 140.34 87.5686 0 0 0
102.347 140.92 141.953 0 0 0
102.488 140.242 142.236 0 0 0
102.491 141.203 87.7371 0 0 0
102.326 141.909 87.9607 0 0 0
102.381 141.667 141.726 0 0 0
102.305 142.677 88.0942 0 0 0
102.496 142.523 141.511 0 0 0
102.347 143.539 88.1368 0 0 0
102.033 143.966 140.968 0 0 0
102.494 143.505 141.232 0 0 0
102.495 144.501 88.0782 0 0 0
102.205 144.595 140.829 0 0 0
102.468 145.543 88.0826 0 0 0
102.553 145.467 140.657 0 0 0
102.327 146.538 88.1613 0 0 0
101.986 147.005 140.019 0 0 0
102.475 146.562 140.302 0 0 0
102.292 147.499 88.1876 0 0 0
102.095 147.651 139.894 0 0 0
102.294 148.442 88.1653 0 0 0
102.267 148.469 139.763 0 0 0
102.328 149.315 88.0961 0 0 0
102.572 149.393 139.632 0 0 0
102.432 149.986 88.0065 0 0 0
101.968 151.007 139.061 0 0 0
102.47 150.544 139.33 0 0 0
102.526 150.636 87.8843 0 0 0
102.561 151.563 87.7794 0 0 0
102.031 151.688 138.98 0 0 0
101.783 152.56 87.9003 0 0 0
102.621 152.549 87.6988 0 0 0
102.081 152.567 138.912 0 0 0
101.841 153.53 87.8793 0 0 0
102.632 153.529 87.6571 0 0 0
102.107 153.517 138.871 0 0 0
101.862 154.509 87.8757 0 0 0
102.631 154.51 87.6416 0 0 0
102.115 154.49 138.852 0 0 0
101.876 155.491 87.8815 0 0 0
102.633 155.494 87.644 0 0 0
102.113 155.454 138.864 0 0 0
101.897 156.461 87.8973 0 0 0
102.642 156.474 87.665 0 0 0
102.076 156.362 138.905 0 0 0
101.931 157.381 87.9262 0 0 0
102.65 157.451 87.7141 0 0 0
102.007 157.091 138.961 0 0 0
101.97 158.126 87.9621 0 0 0
102.595 158.482 87.8147 0 0 0
102.026 158.862 88.0178 0 0 0
102.525 157.493 139.254 0 0 0
101.845 157.829 139.024 0 0 0
102.459 158.547 139.394 0 0 0
102.06 159.609 88.0563 0 0 0
102.419 159.539 139.499 0 0 0
102.09 160.532 88.0925 0 0 0
102.397 160.519 139.56 0 0 0
102.118 161.499 88.1242 0 0 0
102.387 161.505 139.587 0 0 0
102.162 162.473 88.1632 0 0 0
102.384 162.495 139.588 0 0 0
102.263 163.442 88.2193 0 0 0
102.384 163.49 139.566 0 0 0
102.53 164.434 88.2853 0 0 0
102.388 164.497 139.528 0 0 0
102.557 165.425 88.4933 0 0 0
101.722 165.531 139.21 0 0 0
102.462 165.502 139.509 0 0 0
102.526 166.402 88.7459 0 0 0
102.117 166.933 88.9908 0 0 0
101.803 166.517 139.195 0 0 0
102.538 166.498 139.491 0 0 0
102.348 167.609 89.0716 0 0 0
101.849 167.508 139.177 0 0 0
102.613 167.503 139.471 0 0 0
102.088 168.653 89.3045 0 0 0
101.72 168.911 89.5851 0 0 0
101.864 168.505 139.157 0 0 0
102.618 168.511 139.43 0 0 0
102.39 168.952 89.1392 0 0 0
102.463 169.415 89.1535 0 0 0
101.977 169.404 89.4305 0 0 0
101.69 169.183 89.6263 0 0 0
101.869 169.503 139.142 0 0 0
102.618 169.508 139.403 0 0 0
102.461 170.389 89.402 0 0 0
101.87 170.501 139.134 0 0 0
102.619 170.504 139.388 0 0 0
102.511 171.361 89.656 0 0 0
101.871 171.5 139.13 0 0 0
102.62 171.501 139.382 0 0 0
101.943 171.978 90.0833 0 0 0
102.57 172.151 89.9139 0 0 0
102.428 172.776 90.2537 0 0 0
101.872 172.499 139.127 0 0 0
102.621 172.5 139.378 0 0 0
102.45 173.573 90.6062 0 0 0
102.078 174.007 90.9657 0 0 0
101.874 173.496 139.121 0 0 0
102.622 173.497 139.374 0 0 0
102.304 174.661 91.058 0 0 0
101.881 174.487 139.11 0 0 0
102.625 174.492 139.365 0 0 0
102.239 175.536 91.2069 0 0 0
101.899 175.462 139.09 0 0 0
102.628 175.481 139.345 0 0 0
102.228 176.427 91.1604 0 0 0
101.931 176.386 139.061 0 0 0
102.619 176.466 139.301 0 0 0
102.336 177.328 90.934 0 0 0
102.024 177.868 138.975 0 0 0
102.545 177.499 139.209 0 0 0
101.969 177.132 139.027 0 0 0
101.738 178.267 82.0005 0 0 0
101.782 178.235 82.3709 0 0 0
102.244 178.787 82.6647 0 0 0
102.079 178.863 81.8614 0 0 0
102.201 177.901 90.8155 0 0 0
102.061 178.614 138.942 0 0 0
102.232 179.653 81.368 0 0 0
102.216 178.885 83.5136 0 0 0
102.821 179.499 83.6558 0 0 0
102.785 179.348 82.9695 0 0 0
102.1 178.962 84.1941 0 0 0
102.575 179.522 84.5669 0 0 0
102.532 178.374 90.5124 0 0 0
102.537 179.364 90.1056 0 0 0
102.093 179.538 138.915 0 0 0
101.911 179.898 80.8023 0 0 0
102.503 180.598 81.2334 0 0 0
101.981 180.629 80.5895 0 0 0
103.033 179.891 84.3526 0 0 0
103.126 179.862 83.9386 0 0 0
102.512 179.77 85.5398 0 0 0
102.245 179.843 86.3997 0 0 0
102.711 180.318 86.5246 0 0 0
102.877 180.21 85.8631 0 0 0
102.07 179.949 87.0719 0 0 0
102.488 180.464 87.3916 0 0 0
102.263 179.835 89.8513 0 0 0
102.115 180.512 138.896 0 0 0
101.708 180.874 80.1557 0 0 0
101.772 181.326 80.1331 0 0 0
102.08 181.574 80.5452 0 0 0
102.634 181.537 81.1994 0 0 0
102.299 180.552 88.0961 0 0 0
102.704 180.886 88.383 0 0 0
102.894 180.948 87.756 0 0 0
102.624 180.244 89.5443 0 0 0
102.777 180.767 89.0233 0 0 0
102.124 181.504 138.884 0 0 0
102.691 182.484 81.2935 0 0 0
102.155 182.52 80.7129 0 0 0
102.128 182.502 138.877 0 0 0
102.72 183.484 81.4958 0 0 0
102.116 183.467 80.8583 0 0 0
102.129 183.501 138.872 0 0 0
102.489 184.491 81.5155 0 0 0
101.977 184.39 80.9521 0 0 0
103.102 183.85 81.9631 0 0 0
103.011 184.589 82.0744 0 0 0
102.13 184.5 138.87 0 0 0
101.886 185.129 81.0672 0 0 0
102.234 185.495 81.5499 0 0 0
102.845 185.506 82.1951 0 0 0
102.13 185.499 138.866 0 0 0
102.77 186.505 82.4424 0 0 0
102.162 186.494 81.8006 0 0 0
102.132 186.497 138.858 0 0 0
102.506 187.504 82.4762 0 0 0
101.997 187.407 81.9253 0 0 0
103.118 186.872 82.9142 0 0 0
103.019 187.606 83.0157 0 0 0
102.137 187.495 138.843 0 0 0
101.893 188.135 82.0453 0 0 0
102.24 188.498 82.5043 0 0 0
102.853 188.522 83.0974 0 0 0
102.152 188.492 138.823 0 0 0
102.748 189.472 83.241 0 0 0
102.167 189.48 82.731 0 0 0
102.2 189.483 138.804 0 0 0
102.679 190.475 83.4303 0 0 0
102.038 190.387 82.8961 0 0 0
102.285 190.467 138.787 0 0 0
101.91 191.117 83.0187 0 0 0
102.309 191.519 83.416 0 0 0
103.103 190.861 83.8102 0 0 0
103.006 191.611 83.8649 0 0 0
102.472 191.497 138.783 0 0 0
102.951 192.546 83.9612 0 0 0
102.232 192.546 83.5861 0 0 0
102.416 192.525 138.683 0 0 0
102.913 193.521 84.0371 0 0 0
102.187 193.531 83.7094 0 0 0
102.446 193.505 138.623 0 0 0
102.884 194.507 84.0843 0 0 0
102.145 194.513 83.785 0 0 0
102.508 194.497 138.569 0 0 0
102.862 195.496 84.1139 0 0 0
102.119 195.496 83.8387 0 0 0
102.51 195.491 138.487 0 0 0
102.831 196.482 84.1364 0 0 0
102.093 196.466 83.8812 0 0 0
102.518 196.477 138.392 0 0 0
102.767 197.466 84.1579 0 0 0
102.064 197.387 83.9245 0 0 0
101.842 197.401 138.082 0 0 0
102.596 197.444 138.299 0 0 0
102.033 198.133 83.9659 0 0 0
102.601 198.498 84.169 0 0 0
102.153 198.839 137.938 0 0 0
102.611 198.41 138.157 0 0 0
101.969 198.113 138.017 0 0 0
102.705 199.533 84.2615 0 0 0
102.369 199.598 137.879 0 0 0
102.73 200.52 84.3077 0 0 0
102.342 200.555 137.733 0 0 0
102.73 201.499 84.3211 0 0 0
102.389 201.508 137.627 0 0 0
102.715 202.492 84.3162 0 0 0
102.474 202.487 137.528 0 0 0
102.688 203.486 84.3192 0 0 0
102.483 203.485 137.388 0 0 0
102.634 204.476 84.3505 0 0 0
101.992 204.902 136.987 0 0 0
102.487 204.515 137.234 0 0 0
101.833 204.174 137.066 0 0 0
102.546 205.469 84.4309 0 0 0
102.067 205.611 136.913 0 0 0
102.512 206.454 84.5943 0 0 0
102.148 206.49 136.812 0 0 0
102.498 207.445 84.8291 0 0 0
102.254 207.424 136.67 0 0 0
102.178 208.149 84.9721 0 0 0
102.593 208.627 85.1864 0 0 0
102.887 207.968 85.0403 0 0 0
102.016 208.97 136.075 0 0 0
102.478 208.478 136.464 0 0 0
102.516 209.55 85.463 0 0 0
102.18 209.629 135.901 0 0 0
102.465 210.541 85.7734 0 0 0
102.487 210.52 135.707 0 0 0
102.159 211.164 85.9352 0 0 0
102.55 211.604 86.1169 0 0 0
102.747 211.04 85.9711 0 0 0
101.843 211.422 135.028 0 0 0
102.602 211.48 135.401 0 0 0
102.516 212.523 86.4089 0 0 0
101.704 212.459 134.498 0 0 0
102.284 212.786 134.701 0 0 0
102.661 212.397 135.079 0 0 0
102.06 212.097 134.881 0 0 0
102.502 213.556 86.7446 0 0 0
102.093 213.87 134.092 0 0 0
102.502 213.495 134.507 0 0 0
101.876 213.162 134.289 0 0 0
102.202 214.216 86.9169 0 0 0
102.626 214.633 87.0782 0 0 0
102.794 214.057 86.9413 0 0 0
102.337 214.59 133.928 0 0 0
102.636 215.506 87.3275 0 0 0
102.414 215.503 133.596 0 0 0
102.543 216.383 87.5981 0 0 0
102.094 216.939 132.801 0 0 0
102.514 216.493 133.228 0 0 0
102.514 217.254 87.8999 0 0 0
102.504 217.88 88.149 0 0 0
101.725 217.525 132.288 0 0 0
102.315 217.572 132.641 0 0 0
102.495 218.472 88.4254 0 0 0
102.203 218.817 131.95 0 0 0
102.603 218.417 132.407 0 0 0
101.949 218.146 132.135 0 0 0
102.462 219.206 88.764 0 0 0
102.375 219.869 89.0559 0 0 0
102.485 219.535 131.743 0 0 0
102.449 220.59 89.3064 0 0 0
102.182 220.833 130.867 0 0 0
102.572 220.443 131.305 0 0 0
101.893 220.13 131.078 0 0 0
102.488 221.457 89.5722 0 0 0
102.482 221.532 130.65 0 0 0
102.489 222.389 89.8584 0 0 0
102.138 222.935 90.0859 0 0 0
102.217 222.798 129.729 0 0 0
102.589 222.417 130.201 0 0 0
101.916 222.113 129.97 0 0 0
102.474 223.548 90.2164 0 0 0
102.151 223.855 128.989 0 0 0
102.525 223.478 129.484 0 0 0
101.845 223.173 129.237 0 0 0
102.462 224.527 90.4636 0 0 0
102.468 224.531 128.748 0 0 0
101.761 225.201 90.8363 0 0 0
102.422 225.511 90.6346 0 0 0
101.92 225.857 90.9159 0 0 0
102.239 225.769 127.815 0 0 0
102.596 225.385 128.274 0 0 0
101.911 225.11 128.048 0 0 0
101.935 226.457 90.9293 0 0 0
102.57 226.407 127.559 0 0 0
101.905 227.042 90.9047 0 0 0
102.153 227.97 126.008 0 0 0
102.518 227.707 126.507 0 0 0
101.843 227.23 126.412 0 0 0
102.638 227.139 127.064 0 0 0
102.05 226.902 126.872 0 0 0
102.325 227.44 90.5757 0 0 0
102.359 228.399 90.3267 0 0 0
102.46 228.604 125.746 0 0 0
102.393 229.197 90.0853 0 0 0
102.228 229.796 124.685 0 0 0
102.585 229.438 125.225 0 0 0
101.917 229.122 124.962 0 0 0
102.076 230.003 89.9971 0 0 0
102.607 229.8 89.7624 0 0 0
102.001 230.651 89.8689 0 0 0
102.657 230.577 89.5032 0 0 0
102.201 230.826 123.803 0 0 0
102.548 230.47 124.398 0 0 0
101.883 230.149 124.102 0 0 0
101.906 231.494 89.6867 0 0 0
102.616 231.46 89.2399 0 0 0
102.182 231.872 122.908 0 0 0
102.525 231.509 123.511 0 0 0
101.853 231.189 123.17 0 0 0
101.777 232.402 89.4503 0 0 0
102.328 232.134 89.1586 0 0 0
101.85 232.441 122.154 0 0 0
102.536 232.548 122.698 0 0 0
102.113 232.7 89.0538 0 0 0
102.609 232.504 88.7539 0 0 0
101.976 233.142 88.9422 0 0 0
102.377 233.324 88.4372 0 0 0
101.886 233.559 88.8499 0 0 0
101.804 233.417 121.348 0 0 0
102.361 233.753 121.656 0 0 0
102.664 233.384 122.195 0 0 0
102.089 233.088 121.914 0 0 0
101.773 233.933 88.7073 0 0 0
101.761 234.427 120.481 0 0 0
102.321 234.786 120.778 0 0 0
102.667 234.433 121.38 0 0 0
102.061 234.1 121.082 0 0 0
102.11 235.101 86 0 0 0
102.541 234.767 85.5602 0 0 0
102.579 234.363 86.4982 0 0 0
102.012 234.954 86.6304 0 0 0
101.596 235.581 86.5787 0 0 0
101.836 235.655 85.8312 0 0 0
102.175 235.511 85.2208 0 0 0
102.409 234.133 87.4325 0 0 0
101.798 234.81 87.4435 0 0 0
102.019 234.022 88.2354 0 0 0
102.209 235.82 119.815 0 0 0
102.576 235.48 120.446 0 0 0
101.956 235.117 120.137 0 0 0
101.903 236.112 85.056 0 0 0
102.121 236.86 118.893 0 0 0
102.511 236.542 119.521 0 0 0
101.854 236.173 119.167 0 0 0
102.069 237.051 78.8312 0 0 0
102.432 236.586 78.5066 0 0 0
102.421 236.429 79.4802 0 0 0
102.041 237.032 79.4763 0 0 0
101.704 237.675 79.4612 0 0 0
101.813 237.607 78.5047 0 0 0
102.151 237.132 78.1504 0 0 0
102.377 236.534 80.4583 0 0 0
102.042 237.045 80.1161 0 0 0
101.757 237.624 80.3884 0 0 0
102.058 237.16 80.777 0 0 0
102.061 236.986 82.8678 0 0 0
102.386 236.501 82.5291 0 0 0
102.204 236.472 83.5092 0 0 0
101.99 236.949 83.3038 0 0 0
101.685 237.369 83.5445 0 0 0
101.784 237.489 82.7822 0 0 0
101.999 237.304 82.2308 0 0 0
101.923 236.932 83.7533 0 0 0
101.657 236.728 84.7982 0 0 0
102.011 236.356 84.4026 0 0 0
101.813 236.893 84.2047 0 0 0
101.819 237.373 118.157 0 0 0
102.371 237.487 118.641 0 0 0
101.953 237.95 76.8622 0 0 0
102.349 237.515 76.5038 0 0 0
102.253 237.245 77.4339 0 0 0
101.846 237.833 77.579 0 0 0
101.699 238.536 76.514 0 0 0
102.088 238.092 76.1511 0 0 0
102.016 237.319 81.461 0 0 0
101.72 237.783 81.1103 0 0 0
101.731 237.874 81.6932 0 0 0
101.728 237.841 82.1427 0 0 0
102.049 238.952 116.938 0 0 0
102.326 238.682 117.513 0 0 0
101.793 238.172 117.408 0 0 0
102.731 238.307 118.282 0 0 0
102.096 237.966 117.963 0 0 0
101.956 238.989 74.8871 0 0 0
102.354 238.558 74.5137 0 0 0
102.228 238.243 75.4383 0 0 0
101.811 238.829 75.5912 0 0 0
101.728 239.617 74.5728 0 0 0
102.107 239.199 74.1696 0 0 0
101.999 239.921 116.071 0 0 0
102.376 239.64 116.676 0 0 0
101.746 239.25 116.36 0 0 0
101.88 239.86 73.8266 0 0 0
102.248 239.443 73.427 0 0 0
101.676 240.545 73.4884 0 0 0
102.04 240.072 73.1205 0 0 0
102.192 240.558 115.783 0 0 0
102.037 241.004 71.9429 0 0 0
102.404 240.543 71.5866 0 0 0
102.201 240.24 72.4506 0 0 0
101.863 240.846 72.6025 0 0 0
101.576 241.635 72.5635 0 0 0
101.907 241.679 71.6989 0 0 0
102.234 241.255 71.2871 0 0 0
102.195 241.801 114.855 0 0 0
102.548 241.411 115.462 0 0 0
101.873 241.104 115.121 0 0 0
102.089 241.959 71.0824 0 0 0
102.461 241.598 70.6483 0 0 0
101.665 242.601 71.69 0 0 0
101.986 242.661 70.9905 0 0 0
102.373 242.578 70.36 0 0 0
102.132 242.899 113.804 0 0 0
102.49 242.524 114.488 0 0 0
101.531 243.539 71.5949 0 0 0
101.888 243.556 70.9102 0 0 0
102.272 243.544 70.2522 0 0 0
102.14 243.846 112.839 0 0 0
102.366 243.497 113.452 0 0 0
101.823 243.229 113.137 0 0 0
101.423 244.495 71.5385 0 0 0
101.808 244.515 70.8634 0 0 0
102.2 244.518 70.2037 0 0 0
102.213 244.836 111.905 0 0 0
102.522 244.517 112.56 0 0 0
101.879 244.188 112.183 0 0 0
101.739 245.509 70.8415 0 0 0
102.156 245.505 70.1783 0 0 0
101.935 245.322 111.101 0 0 0
102.566 245.463 111.658 0 0 0
101.723 246.511 70.7822 0 0 0
102.148 246.498 70.1531 0 0 0
101.781 246.449 109.452 0 0 0
102.322 246.862 109.772 0 0 0
102.611 246.641 110.428 0 0 0
101.992 246.101 110.288 0 0 0
102.693 246.128 111.12 0 0 0
102.177 245.871 110.858 0 0 0
101.73 247.499 70.7511 0 0 0
102.171 247.489 70.1403 0 0 0
102.082 247.883 107.808 0 0 0
102.327 247.745 108.503 0 0 0
101.812 247.178 108.404 0 0 0
102.638 247.466 109.396 0 0 0
102.055 247.044 109.097 0 0 0
101.757 248.482 70.7646 0 0 0
102.223 248.487 70.1518 0 0 0
101.505 248.498 104.526 0 0 0
101.735 248.492 105.478 0 0 0
102.125 248.904 105.832 0 0 0
102.264 248.772 106.54 0 0 0
101.815 248.242 106.396 0 0 0
102.389 248.463 107.445 0 0 0
101.91 248.052 107.107 0 0 0
101.796 249.45 70.836 0 0 0
102.261 249.478 70.2467 0 0 0
102.038 249.984 102.917 0 0 0
102.162 249.82 103.636 0 0 0
101.718 249.235 103.537 0 0 0
102.294 249.655 104.505 0 0 0
101.873 249.106 104.423 0 0 0
102.408 249.431 105.464 0 0 0
101.993 249.019 105.126 0 0 0
101.861 250.375 70.9397 0 0 0
102.319 250.448 70.3731 0 0 0
101.515 250.611 100.501 0 0 0
101.788 250.52 101.425 0 0 0
102.18 250.886 101.846 0 0 0
102.379 250.667 102.636 0 0 0
101.905 250.221 102.187 0 0 0
101.971 251.117 70.9926 0 0 0
102.396 251.456 70.5653 0 0 0
102.104 251.841 71.0772 0 0 0
101.699 251.492 71.519 0 0 0
101.614 251.495 99.4867 0 0 0
101.897 251.435 100.412 0 0 0
102.267 251.809 100.818 0 0 0
102.38 251.492 101.488 0 0 0
102.006 251.15 101.111 0 0 0
101.803 252.456 71.7494 0 0 0
102.248 252.558 71.1707 0 0 0
101.62 252.683 97.6149 0 0 0
101.917 253.087 97.8932 0 0 0
102.012 253.02 98.3161 0 0 0
101.81 252.522 98.5285 0 0 0
102.016 252.365 99.4374 0 0 0
102.38 252.753 99.8159 0 0 0
102.569 252.494 100.552 0 0 0
102.136 252.105 100.136 0 0 0
101.937 253.314 71.957 0 0 0
102.394 253.434 71.375 0 0 0
101.371 253.509 94.484 0 0 0
101.81 253.383 97.2016 0 0 0
102.111 253.59 97.767 0 0 0
102.088 252.984 98.7623 0 0 0
102.313 253.471 98.5427 0 0 0
102.617 253.374 99.4612 0 0 0
102.212 252.923 99.2204 0 0 0
102.111 253.99 72.0629 0 0 0
102.601 254.432 71.6417 0 0 0
102.24 254.784 72.4635 0 0 0
101.862 254.178 72.653 0 0 0
102.017 254.977 73.0417 0 0 0
101.642 254.573 73.4348 0 0 0
101.453 254.58 92.5142 0 0 0
101.678 254.575 93.4842 0 0 0
101.991 255.057 93.761 0 0 0
102.049 255.01 94.2519 0 0 0
101.811 254.49 94.4922 0 0 0
101.894 254.358 95.4863 0 0 0
102.237 254.877 95.8434 0 0 0
102.327 254.734 96.5348 0 0 0
101.926 254.094 96.3644 0 0 0
102.428 254.41 97.4295 0 0 0
102.032 253.979 97.0076 0 0 0
101.808 255.382 73.8171 0 0 0
102.181 255.57 73.2418 0 0 0
101.567 255.347 91.4777 0 0 0
101.837 255.404 92.4113 0 0 0
102.188 255.863 92.8083 0 0 0
102.229 255.626 93.5427 0 0 0
101.912 255.198 93.1501 0 0 0
102.084 254.997 94.7474 0 0 0
102.343 255.509 94.4983 0 0 0
102.541 255.514 95.5021 0 0 0
102.151 254.969 95.2473 0 0 0
102.001 255.987 73.9957 0 0 0
102.408 256.371 73.5798 0 0 0
102.236 256.768 74.4299 0 0 0
101.821 256.174 74.6202 0 0 0
102.046 256.979 75.0745 0 0 0
101.627 256.556 75.4371 0 0 0
101.66 256.39 89.5025 0 0 0
102.042 256.907 89.8624 0 0 0
102.17 256.827 90.5742 0 0 0
101.769 256.166 90.4997 0 0 0
102.342 256.74 91.4578 0 0 0
101.933 256.077 91.3863 0 0 0
102.505 256.57 92.4587 0 0 0
102.081 256.024 92.0931 0 0 0
101.822 257.252 75.7027 0 0 0
102.255 257.642 75.3099 0 0 0
102.025 257.939 75.9041 0 0 0
101.547 257.598 76.2886 0 0 0
101.518 257.503 86.5321 0 0 0
101.743 257.465 87.4772 0 0 0
102.111 257.912 87.8455 0 0 0
102.221 257.773 88.5704 0 0 0
101.81 257.162 88.4072 0 0 0
102.296 257.49 89.5103 0 0 0
101.917 257.023 89.1434 0 0 0
101.675 258.545 76.5126 0 0 0
102.226 258.631 76.0113 0 0 0
102.005 259.064 85.0025 0 0 0
102.172 258.935 85.6662 0 0 0
101.705 258.301 85.5967 0 0 0
102.309 258.771 86.5269 0 0 0
101.876 258.152 86.4425 0 0 0
102.384 258.495 87.4912 0 0 0
101.991 258.041 87.1365 0 0 0
101.817 259.438 76.6492 0 0 0
102.488 259.563 76.1619 0 0 0
102.037 259.997 84.1436 0 0 0
102.311 259.734 84.727 0 0 0
101.768 259.306 84.4118 0 0 0
101.9 260.173 76.7778 0 0 0
102.482 260.591 76.5209 0 0 0
101.972 260.892 76.8864 0 0 0
102.259 260.682 83.9103 0 0 0
102.003 261.603 76.9567 0 0 0
102.317 261.581 83.4482 0 0 0
102.011 262.437 77.0049 0 0 0
102.393 262.539 83.0224 0 0 0
102.153 262.037 83.1579 0 0 0
101.677 261.994 83.0845 0 0 0
102.606 262.06 83.228 0 0 0
101.996 263.148 77.0222 0 0 0
102.432 263.471 82.6918 0 0 0
101.93 263.859 77.0044 0 0 0
102.556 263.532 76.8677 0 0 0
101.859 264.569 77.0081 0 0 0
102.675 264.577 76.8979 0 0 0
102.441 264.343 82.363 0 0 0
102.902 264.851 76.9256 0 0 0
102.892 265.115 76.9341 0 0 0
102.643 265.347 76.929 0 0 0
102.478 265.716 81.7467 0 0 0
102.385 265.07 82.0675 0 0 0
102.587 266.216 76.9928 0 0 0
102.46 266.407 81.3607 0 0 0
102.538 266.916 77.1769 0 0 0
102.482 267.478 77.5209 0 0 0
102.423 267.532 80.52 0 0 0
102.375 267.018 80.9782 0 0 0
102.397 267.952 78.01 0 0 0
102.262 268.313 78.6658 0 0 0
102.272 268.319 79.3927 0 0 0
102.327 267.994 80.0216 0 0 0
101.819 268.631 78.9028 0 0 0
101.827 268.636 79.2008 0 0 0
102.821 74.1174 106.721 0 0 0
102.864 74.1103 107.158 0 0 0
102.996 74.6357 107.249 0 0 0
102.936 74.6802 106.5 0 0 0
102.896 74.083 110.708 0 0 0
102.849 74.106 111.195 0 0 0
102.991 74.6889 111.396 0 0 0
103.068 74.6385 110.461 0 0 0
102.886 74.9117 105.846 0 0 0
103.162 75.5283 106.535 0 0 0
103.023 75.6005 105.595 0 0 0
103.204 75.3857 107.543 0 0 0
103.108 74.878 108.906 0 0 0
103.121 74.8132 109.583 0 0 0
103.376 75.56 109.527 0 0 0
103.271 75.4288 108.558 0 0 0
103.371 75.5304 110.474 0 0 0
103.288 75.5848 111.416 0 0 0
102.918 74.9233 112.084 0 0 0
103.074 75.6281 112.322 0 0 0
102.934 75.8784 104.883 0 0 0
103.281 76.5219 105.558 0 0 0
103.078 76.5875 104.614 0 0 0
103.419 76.4558 106.519 0 0 0
103.513 76.4027 107.508 0 0 0
103.59 76.3734 108.494 0 0 0
103.708 76.4817 109.494 0 0 0
103.68 76.3834 110.473 0 0 0
103.624 76.5483 111.431 0 0 0
103.374 76.5518 112.346 0 0 0
102.934 75.9118 112.958 0 0 0
103.078 76.5984 113.105 0 0 0
102.961 76.875 103.903 0 0 0
103.357 77.4976 104.572 0 0 0
103.115 77.5798 103.65 0 0 0
103.556 77.441 105.524 0 0 0
103.689 77.3545 106.487 0 0 0
103.829 77.3705 107.484 0 0 0
103.86 77.1642 108.425 0 0 0
103.901 77.0878 109.144 0 0 0
103.633 77.4745 112.469 0 0 0
103.788 77.2188 111.772 0 0 0
103.224 77.5218 113.378 0 0 0
102.981 77.8711 102.983 0 0 0
103.434 78.4681 103.62 0 0 0
103.162 78.5214 102.819 0 0 0
103.657 78.3715 104.527 0 0 0
103.89 78.3693 105.497 0 0 0
103.956 78.1206 106.428 0 0 0
104.013 78.0085 107.145 0 0 0
103.549 78.5483 113.356 0 0 0
103.767 78.206 112.728 0 0 0
102.973 77.8648 114.026 0 0 0
103.137 78.6111 114.1 0 0 0
103.799 79.3808 103.507 0 0 0
103.395 79.369 102.476 0 0 0
103.961 79.1254 104.436 0 0 0
104.097 79.0145 105.152 0 0 0
103.27 79.4973 114.243 0 0 0
103.66 79.5052 113.606 0 0 0
102.957 79.9398 100.918 0 0 0
103.196 79.7542 101.588 0 0 0
103.623 80.5496 101.555 0 0 0
103.178 80.6203 100.647 0 0 0
103.823 80.1941 102.438 0 0 0
104.025 80.0431 103.154 0 0 0
103.406 80.3951 114.399 0 0 0
103.778 80.3656 113.778 0 0 0
102.952 80.923 99.993 0 0 0
103.618 81.4979 100.564 0 0 0
103.202 81.601 99.8291 0 0 0
103.842 81.2129 101.228 0 0 0
103.603 81.3672 114.629 0 0 0
103.892 81.0625 113.947 0 0 0
103.784 82.195 100.239 0 0 0
103.476 82.5282 99.5551 0 0 0
103.245 81.7232 115.444 0 0 0
103.569 82.4131 115.52 0 0 0
103.903 82.2657 114.848 0 0 0
102.976 81.9215 116.026 0 0 0
103.215 82.5334 116.19 0 0 0
103.171 82.8703 98.9058 0 0 0
103.728 83.4587 99.3073 0 0 0
103.332 83.5671 98.7203 0 0 0
103.959 83.0655 115.618 0 0 0
104.157 82.8368 115.011 0 0 0
103.597 83.3576 116.5 0 0 0
103.897 84.1678 99.1235 0 0 0
103.543 84.5101 98.4932 0 0 0
103.297 83.688 117.25 0 0 0
103.679 84.3306 117.625 0 0 0
103.935 84.0049 116.865 0 0 0
103.208 84.8542 97.8812 0 0 0
103.715 85.4563 98.2614 0 0 0
103.328 85.5649 97.7098 0 0 0
103.344 84.6538 118.479 0 0 0
103.853 85.1457 118.614 0 0 0
104.034 84.9051 118.005 0 0 0
103.101 84.8729 119.119 0 0 0
103.518 85.4103 119.458 0 0 0
103.823 86.1625 98.0888 0 0 0
103.5 86.5251 97.5153 0 0 0
103.218 85.6591 120.179 0 0 0
103.629 86.1209 120.575 0 0 0
103.912 85.898 119.865 0 0 0
103.166 86.8784 96.9245 0 0 0
103.684 87.5259 97.3603 0 0 0
103.269 87.6012 96.8031 0 0 0
103.569 86.6055 121.505 0 0 0
103.229 86.8345 122.182 0 0 0
103.591 87.2541 122.59 0 0 0
103.903 87.0384 121.97 0 0 0
103.847 88.4002 97.2417 0 0 0
103.415 88.4777 96.6956 0 0 0
103.51 87.7562 123.438 0 0 0
103.157 88.0189 124.048 0 0 0
103.529 88.492 124.347 0 0 0
103.852 88.2444 123.844 0 0 0
103.987 89.1189 97.1316 0 0 0
103.631 89.4433 96.6071 0 0 0
103.653 89.0283 124.881 0 0 0
103.608 90.4387 96.1874 0 0 0
103.575 89.5449 125.556 0 0 0
103.223 89.8482 126.099 0 0 0
103.545 90.3053 126.516 0 0 0
103.892 90.0098 125.956 0 0 0
102.9 90.9812 95.0994 0 0 0
103.207 90.7903 95.56 0 0 0
103.466 91.5639 95.5293 0 0 0
103.011 91.6501 94.9841 0 0 0
103.881 91.3869 96.08 0 0 0
103.442 90.8418 127.211 0 0 0
103.501 91.4035 127.873 0 0 0
103.78 92.4196 95.496 0 0 0
103.237 92.5209 94.9037 0 0 0
104.09 92.0805 95.9849 0 0 0
103.179 91.7446 128.374 0 0 0
103.557 92.0642 128.756 0 0 0
103.765 91.7767 128.229 0 0 0
103.88 93.1319 95.2657 0 0 0
103.509 93.4739 94.7942 0 0 0
103.534 92.6085 129.616 0 0 0
103.241 93.0034 130.082 0 0 0
103.588 94.4044 94.4948 0 0 0
103.457 93.3824 130.644 0 0 0
103.21 93.8269 131.064 0 0 0
103.683 95.2917 94.1804 0 0 0
103.452 94.1487 131.518 0 0 0
103.59 94.6836 132.107 0 0 0
102.871 94.8214 132.105 0 0 0
103.555 95.2709 132.675 0 0 0
103.291 95.7491 93.7804 0 0 0
103.951 95.9663 93.9915 0 0 0
103.602 96.4881 93.5564 0 0 0
103.606 95.8564 133.232 0 0 0
102.893 95.8616 133.108 0 0 0
103.493 96.505 133.801 0 0 0
103.638 97.491 93.0691 0 0 0
103.163 96.9558 134.174 0 0 0
103.487 97.4022 134.662 0 0 0
103.73 96.9391 134.202 0 0 0
103.389 97.9706 92.7793 0 0 0
103.25 97.9418 135.11 0 0 0
103.581 98.4978 92.49 0 0 0
103.287 98.9831 92.1611 0 0 0
103.515 98.3593 135.655 0 0 0
103.234 98.8858 136.064 0 0 0
103.441 99.529 91.9074 0 0 0
103.446 100.576 91.4698 0 0 0
103.445 99.2968 136.626 0 0 0
103.117 99.8259 137.035 0 0 0
103.111 101.189 91.2038 0 0 0
103.414 100.163 137.575 0 0 0
103.525 100.69 138.242 0 0 0
102.822 100.891 138.122 0 0 0
103.415 101.223 138.801 0 0 0
102.783 101.815 91.0031 0 0 0
103.409 101.667 91.086 0 0 0
103.357 102.53 90.9086 0 0 0
103.545 101.74 139.476 0 0 0
102.82 101.844 139.194 0 0 0
103.163 102.25 139.829 0 0 0
103.387 103.478 90.7487 0 0 0
103.484 102.689 140.477 0 0 0
103.179 103.265 140.906 0 0 0
103.476 104.459 90.5918 0 0 0
103.589 103.522 141.456 0 0 0
102.928 103.983 141.479 0 0 0
102.504 104.592 141.68 0 0 0
103.693 104.008 142.158 0 0 0
103.179 104.232 141.986 0 0 0
102.962 104.772 142.306 0 0 0
103.605 104.554 142.651 0 0 0
103.494 105.487 90.3915 0 0 0
102.496 105.399 142.415 0 0 0
103.359 105.013 143 0 0 0
103.049 105.107 142.787 0 0 0
103.442 105.381 143.528 0 0 0
103.7 104.89 143.091 0 0 0
102.862 105.567 143.003 0 0 0
103.478 106.499 90.1687 0 0 0
103.009 106.254 143.881 0 0 0
103.146 107.03 90.042 0 0 0
102.792 106.833 144.128 0 0 0
103.402 107.562 89.9129 0 0 0
103.474 108.509 89.6939 0 0 0
102.914 107.044 144.691 0 0 0
103.115 107.202 145.447 0 0 0
102.669 107.923 145.445 0 0 0
103.377 107.363 146.175 0 0 0
102.928 108.027 146.166 0 0 0
103.795 107.665 146.813 0 0 0
103.21 108.115 146.648 0 0 0
103.033 108.765 146.787 0 0 0
103.726 108.611 147.131 0 0 0
103.483 109.534 89.45 0 0 0
103.607 109.545 147.331 0 0 0
103.468 110.617 89.1843 0 0 0
103.562 110.506 147.518 0 0 0
102.701 111.089 89.0326 0 0 0
103.137 111.094 89.0367 0 0 0
103.764 111.388 89.01 0 0 0
103.226 111.633 88.9111 0 0 0
103.557 111.504 147.673 0 0 0
103.853 111.926 88.8844 0 0 0
103.508 112.423 88.6924 0 0 0
103.407 112.463 147.698 0 0 0
103.408 113.57 88.3137 0 0 0
103.559 113.383 147.712 0 0 0
102.735 114.042 88.1383 0 0 0
103.064 113.956 88.1512 0 0 0
103.023 114.289 88.0751 0 0 0
103.409 114.342 88.1017 0 0 0
103.48 114.485 147.595 0 0 0
103.509 114.983 87.9574 0 0 0
103.453 115.548 147.474 0 0 0
103.552 115.605 87.7757 0 0 0
103.537 116.504 87.4992 0 0 0
103.081 117.144 147.135 0 0 0
103.435 116.678 147.318 0 0 0
103.537 117.465 87.1935 0 0 0
103.094 117.734 147.085 0 0 0
103.279 118.008 87.0475 0 0 0
103.103 118.574 147.016 0 0 0
103.541 118.532 86.9223 0 0 0
103.529 119.51 86.7908 0 0 0
103.115 119.513 146.95 0 0 0
103.511 120.495 86.7642 0 0 0
103.146 120.483 146.894 0 0 0
103.448 121.575 86.8433 0 0 0
102.954 122.058 87.0058 0 0 0
103.22 121.461 146.839 0 0 0
103.039 122.719 87.0571 0 0 0
103.409 122.488 146.783 0 0 0
103.098 123.583 87.1013 0 0 0
103.35 123.509 146.632 0 0 0
103.126 124.529 87.1259 0 0 0
103.409 124.478 146.51 0 0 0
103.137 125.509 87.1364 0 0 0
102.746 125.509 146.171 0 0 0
